# .PCD v.7 Point Cloud Data file format
# Note: File auto-generated by stl2pcd.py on 2018-04-04 11:51:51.324446
#  Input: ../stl_files/bar_clamp_asc.stl, output: ../pcd_files/bar_clamp.pcd
VERSION .7
FIELDS x y z normal_x normal_y normal_z
SIZE 4 4 4 4 4 4
TYPE F F F F F F
COUNT 1 1 1 1 1 1
WIDTH 683
HEIGHT 1
VIEWPOINT 0 0 0 1 0 0 0
POINTS 683
DATA ascii
0.02342853 -0.00321003 0.05624452 -0.26684132 0.95418870 0.13534996 
-0.02645524 -0.00791187 0.02308732 -0.96330833 -0.26828060 -0.00791268 
-0.01488612 0.00778647 0.06969435 0.44710729 -0.00184810 0.89447844 
0.00094336 -0.00016147 0.01510007 0.96365196 0.26222229 0.05113028 
-0.02590017 -0.01117385 0.06595956 -0.96331018 -0.26827407 -0.00791192 
-0.02825952 -0.00116851 0.01411015 -0.96330833 -0.26828060 -0.00791268 
-0.01295821 0.02252557 0.02410472 0.96364069 0.26225251 0.05118901 
-0.01925541 0.00786260 0.04269570 0.51794332 -0.67269570 0.52840829 
-0.02502736 -0.01370640 0.05884806 -0.17964637 0.77767855 -0.60244781 
-0.01364197 -0.01300102 0.08579665 0.75191337 0.29399967 -0.59007663 
-0.02293441 -0.02161259 0.05882753 -0.96329385 -0.26833117 -0.00795302 
-0.01143657 -0.00106029 0.06475232 0.01332655 0.14410716 -0.98947233 
0.00413500 -0.01651939 0.03238696 -0.01328217 -0.14406829 0.98947865 
0.03040066 -0.00845255 0.04157632 0.93791252 0.22487535 0.26410449 
-0.00406750 0.00696344 0.02254414 0.49438798 0.85920000 0.13174163 
-0.03298968 0.01458826 0.05562937 -0.96330345 -0.26829764 -0.00792678 
-0.00243595 0.00019296 0.00753868 -0.26677510 0.95420915 0.13533674 
-0.00871382 -0.00166731 0.06470058 0.01332655 0.14410716 -0.98947233 
0.01899351 0.00265749 0.07262869 0.93792576 0.22484578 0.26408279 
-0.01958037 -0.00230539 0.03166954 0.17954302 -0.77762359 0.60254955 
-0.01802657 0.00658021 0.03985864 0.51794332 -0.67269570 0.52840829 
0.01316684 0.01951486 0.06339940 0.31637245 -0.54372561 -0.77734870 
-0.00995305 -0.01720992 0.08755320 0.46501827 0.25048292 -0.84912682 
0.03273408 0.00093798 0.02529465 0.93792689 0.22486463 0.26406273 
0.01186455 -0.01617518 0.08067300 -0.92445475 -0.21378958 -0.31571734 
0.02406437 0.01203651 0.04185518 -0.31646469 0.54369289 0.77733397 
-0.01931465 -0.00460901 0.00930553 -0.02873719 0.13251518 -0.99076426 
-0.02899367 0.00110577 0.02634574 -0.96330351 -0.26829690 -0.00794450 
0.01191698 0.02920723 0.07515689 0.93792778 0.22483827 0.26408172 
-0.03290471 0.01505121 0.02961840 -0.96330351 -0.26829690 -0.00794450 
0.00958344 -0.02134185 0.06722883 -0.60915214 -0.27584344 0.74353498 
-0.01135399 0.01171755 0.10388063 -0.09708545 -0.16633496 0.98127830 
0.02448048 -0.01543021 0.06854183 0.93791252 0.22487535 0.26410449 
-0.01094939 0.01401964 0.02986958 0.96364743 0.26223934 0.05112877 
0.02404879 0.00049981 0.01399428 0.22155443 0.19738756 -0.95496166 
0.02834105 -0.01215578 0.03266155 0.26687947 -0.95418018 -0.13533519 
0.01181950 -0.02366424 0.08375659 -0.74423885 -0.11479779 -0.65797418 
-0.00987446 0.00974058 0.03155881 0.96362770 0.26232004 0.05108746 
0.02766247 0.00525185 0.03963307 0.93791783 0.22484089 0.26411498 
0.01239040 0.00550484 0.01961234 -0.85899895 0.50822377 -0.06188208 
-0.00673175 -0.01899739 0.03188033 -0.01327990 -0.14405468 0.98948056 
-0.02298072 -0.00875487 0.03011340 -0.26683640 0.95418894 0.13535810 
0.02504660 0.02230244 0.02532101 -0.26685923 0.95418704 0.13532665 
-0.00578547 0.02545459 0.07181432 -0.26700744 0.95418817 0.13502645 
-0.01187063 0.01711954 0.03133315 0.96364743 0.26223934 0.05112877 
0.02482807 -0.01225555 0.02643737 0.26687947 -0.95418018 -0.13533519 
-0.03093473 0.00679338 0.06971154 -0.96331471 -0.26825655 -0.00794393 
-0.02690067 0.00122588 0.09089046 -0.84121507 -0.29915604 0.45040286 
-0.01271179 -0.00515275 0.06866436 0.60494179 0.05650745 0.79426229 
0.02870189 -0.00485145 0.04454295 0.93791252 0.22487535 0.26410449 
-0.02679490 -0.01503041 0.01157117 0.96330261 0.26829988 0.00795686 
-0.01507059 0.02456260 0.05346890 0.96364743 0.26223934 0.05112877 
-0.03033850 -0.02021832 0.03031872 -0.96331537 -0.26825455 -0.00793816 
-0.00599005 0.02099590 0.10284644 -0.26695326 0.95418757 0.13513660 
-0.02733208 -0.00628526 0.07452913 -0.96330905 -0.26827773 -0.00792256 
0.00710036 -0.00597096 0.08600680 -0.74457830 -0.11498050 -0.65755820 
-0.02657603 -0.01626758 0.02678992 0.96330261 0.26829994 0.00795690 
0.03003399 0.00322453 0.03293723 0.93791783 0.22484089 0.26411498 
-0.01247711 0.01430668 0.05719296 0.96366858 0.26214752 0.05120073 
0.01074471 -0.00392100 0.04369729 -0.62183380 0.48774722 0.61271971 
-0.02347348 -0.01888279 0.08203402 -0.95611811 -0.27975020 0.08705183 
-0.02293077 -0.02156141 0.05665950 -0.96329385 -0.26833117 -0.00795302 
-0.02188987 0.00685318 0.08174906 0.96030420 0.27511853 -0.04610511 
-0.00840181 -0.00929478 0.09039275 0.31597397 0.21929678 -0.92307603 
-0.01213377 0.00565856 0.03285180 0.52041805 -0.67451996 0.52362961 
0.00733289 -0.02025347 0.06006436 -0.94668436 -0.23326662 -0.22220574 
0.00663001 0.01734632 0.02359023 -0.94671398 -0.23316739 -0.22218339 
-0.01829483 0.02840945 0.02631807 -0.26685855 0.95418364 0.13535161 
-0.01202533 -0.02774734 0.07389625 0.95826685 0.24778056 0.14258115 
-0.03346581 0.01695035 0.03351762 -0.96330351 -0.26829690 -0.00794450 
-0.02224947 0.00284991 0.01038825 -0.02872904 0.13250796 -0.99076545 
0.00254606 -0.01479778 0.00042123 0.26686794 -0.95421612 -0.13510390 
-0.00652711 -0.00086367 0.02674696 0.38012299 -0.02474526 0.92460489 
0.01259675 0.01774347 0.03291564 -0.26685923 0.95418704 0.13532665 
0.00696085 -0.01209700 0.08714085 -0.61544174 -0.06063875 -0.78584635 
-0.02950506 -0.02252435 0.00703518 -0.96332842 -0.26820889 -0.00790334 
-0.02219980 0.01790636 0.09266678 -0.26701447 0.95412147 0.13548268 
0.01376055 -0.00404451 0.09161471 0.83637375 0.15952702 0.52443314 
-0.03289138 -0.01049259 0.01145409 -0.96331537 -0.26825455 -0.00793816 
-0.01719487 0.01468476 0.09299585 0.46501827 0.25048292 -0.84912682 
-0.00666831 0.00894510 0.01938012 0.49438798 0.85920000 0.13174163 
-0.02384000 0.01585631 0.08612753 0.92423791 0.29318875 -0.24459058 
-0.01511001 -0.01878243 0.03179907 -0.01337998 -0.14406610 0.98947757 
-0.00195430 -0.00939006 0.00581604 0.02855530 -0.13251765 0.99076927 
-0.01909452 0.01788518 0.07188661 0.60469943 0.05642876 0.79445231 
0.01282360 -0.02107451 0.09480711 0.59615135 0.05308914 0.80111492 
-0.01323556 0.02322799 0.02572830 0.96364743 0.26223934 0.05112877 
-0.03414421 0.01899847 0.04666145 -0.96330345 -0.26829764 -0.00792678 
0.00555776 -0.00356461 0.07055863 -0.74309486 -0.29316360 0.60155213 
-0.02455473 -0.00705004 0.02702852 0.17970723 -0.77773392 0.60235792 
-0.00299486 -0.00092551 0.01432283 -0.26677510 0.95420915 0.13533674 
-0.02337743 -0.02047249 0.07409680 -0.96330905 -0.26827773 -0.00792256 
0.00255713 -0.00541982 0.01165297 0.96365196 0.26222229 0.05113028 
0.00323193 -0.00446166 0.09992070 0.44067898 -0.00407127 0.89765567 
0.02400487 -0.00853387 0.06435917 0.93793857 0.22481096 0.26406676 
-0.00589647 -0.01016522 0.05869057 0.96365249 0.26221755 0.05114451 
0.01683063 -0.01993416 0.06480185 0.26694885 -0.95416451 -0.13530816 
-0.01622743 -0.01859159 0.03181175 -0.01337998 -0.14406610 0.98947757 
0.01844798 -0.00439386 0.05477114 -0.26684132 0.95418870 0.13534996 
0.00224018 -0.01736078 0.01789197 0.26687214 -0.95417565 -0.13538092 
-0.01984166 -0.00723583 0.00662046 0.02861983 -0.13256863 0.99076056 
0.00854128 0.01292021 0.02688975 -0.48235139 -0.83867818 -0.25289515 
-0.01640481 -0.01546134 0.00542061 0.02862454 -0.13255545 0.99076217 
-0.02001542 -0.00224644 0.09736204 -0.60363644 -0.27497691 0.74833864 
-0.00826027 -0.00301589 0.06656216 0.96364945 0.26227534 0.05090520 
0.01471877 -0.00487196 0.01244977 -0.94670069 -0.23324835 -0.22215542 
-0.03023217 -0.00836888 0.01309578 -0.26687902 0.95417958 0.13534048 
0.00587867 0.00688216 0.07896070 -0.95861626 -0.27728710 0.06455004 
-0.02130741 -0.02165888 0.02659005 0.01330456 0.14410016 -0.98947364 
0.02206284 -0.00907134 0.07171406 0.93791735 0.22485653 0.26410356 
0.02525393 -0.00371392 0.05581923 0.93793857 0.22481096 0.26406676 
-0.03260824 0.01289954 0.06643278 -0.96330345 -0.26829764 -0.00792678 
0.00007093 0.00784225 0.10152830 0.44067898 -0.00407127 0.89765567 
-0.02149882 -0.00829212 0.00182643 -0.02858448 0.13256520 -0.99076205 
-0.00862010 -0.01599851 0.03229159 -0.01328217 -0.14406829 0.98947865 
0.00130836 -0.02394407 0.08903840 0.02115741 0.14619842 -0.98902905 
-0.01278012 -0.00894200 0.02855673 0.01330548 0.14410244 -0.98947328 
0.02084578 0.00738689 0.04379694 -0.31646469 0.54369289 0.77733397 
0.03056651 -0.00382891 0.03705076 0.93791783 0.22484089 0.26411498 
0.01767336 -0.00278785 0.04962236 -0.31642735 0.54371488 0.77733380 
-0.01766973 0.00454975 0.06325575 0.19842416 -0.57427877 -0.79424924 
-0.03241002 0.02093881 0.01796963 -0.20900178 0.76837814 -0.60490781 
-0.00314090 -0.00729958 0.00142963 -0.02857397 0.13254569 -0.99076504 
0.00788241 -0.02057374 0.05805939 -0.94668436 -0.23326662 -0.22220574 
0.00954595 0.02293270 0.08875117 0.91234463 0.20488888 0.35446823 
0.00953492 0.01789994 0.01422295 0.22155900 0.19729269 -0.95498019 
-0.02952597 -0.02239066 0.00504719 -0.96332842 -0.26820889 -0.00790334 
-0.01372399 -0.01874894 0.08228487 0.85211933 0.29922980 -0.42936483 
0.02773752 0.02152612 0.02550889 0.93792766 0.22489093 0.26403728 
-0.01269624 -0.01310082 0.09840179 -0.44932219 -0.24741548 0.85842592 
0.03318064 0.00209025 0.02272730 0.93792689 0.22486463 0.26406273 
0.02833196 0.01342642 0.03029596 0.93792689 0.22486463 0.26406273 
-0.01311735 0.02084870 0.03570379 0.96364743 0.26223934 0.05112877 
0.01238582 -0.01743633 0.03842847 0.26687947 -0.95418018 -0.13533519 
-0.00729211 -0.02134423 0.08779049 0.46481746 0.25045538 -0.84924483 
-0.01029166 0.01355207 0.01987986 0.96364069 0.26225251 0.05118901 
-0.03175716 -0.01460620 0.01282534 -0.96331537 -0.26825455 -0.00793816 
0.01155651 -0.00588134 0.05167017 -0.26689246 0.95416880 0.13538989 
0.00406518 -0.01276000 0.02088112 0.96363837 0.26227635 0.05111053 
0.01984025 -0.02178191 0.08376302 0.26687586 -0.95418340 -0.13531980 
-0.00180319 -0.00626576 0.00709777 -0.96365255 -0.26221004 -0.05118310 
-0.02961081 0.00221876 0.06364662 -0.96331471 -0.26825655 -0.00794393 
0.01407442 0.01096523 0.03705111 -0.59427917 0.08662581 0.79958010 
-0.01480613 -0.01294947 0.08417906 0.85216701 0.29923484 -0.42926657 
0.02206846 0.01760966 0.03714483 -0.31633091 0.54365975 0.77741164 
0.01367559 -0.00593508 0.06035799 -0.06173750 0.80824888 -0.58559567 
0.00856624 -0.00323433 0.04092674 -0.62810379 0.48907888 0.60521692 
0.00869051 0.00807696 0.03006237 -0.22056651 0.07621329 -0.97238982 
-0.02134335 -0.01510027 0.05595022 -0.17963496 0.77765638 -0.60247976 
-0.01935472 0.00042042 0.00997938 -0.02873719 0.13251518 -0.99076426 
-0.00902557 -0.00905813 0.00606424 0.02855530 -0.13251765 0.99076927 
-0.03398015 0.01794719 0.06230688 -0.96330345 -0.26829764 -0.00792678 
0.02018346 -0.00407580 0.06223809 -0.06173750 0.80824888 -0.58559567 
-0.02974700 0.01890391 0.07075177 -0.26691571 0.95416772 0.13535133 
0.01095805 -0.00607045 0.05182316 -0.26689246 0.95416880 0.13538989 
-0.00245483 -0.02311743 0.06025051 0.96363920 0.26226035 0.05117791 
-0.02029052 0.01985996 0.01260611 -0.02874576 0.13248152 -0.99076855 
0.00224297 -0.00570416 0.01903209 0.96365196 0.26222229 0.05113028 
-0.00155476 -0.00257136 0.02876560 -0.26681668 0.95419610 0.13534650 
-0.02739381 0.00672082 0.04565120 0.17962460 -0.77766168 0.60247612 
-0.02763467 -0.02344031 0.00184822 0.26670563 -0.95422614 -0.13535349 
-0.00266811 -0.00779798 0.10101561 0.08738675 -0.11589273 0.98941016 
-0.00195109 -0.02327276 0.05130363 0.26684561 -0.95419216 -0.13531719 
0.00304152 0.00938411 0.08783322 -0.85061610 -0.16719943 -0.49849442 
0.00264769 -0.00088507 0.08965393 -0.61582315 -0.06081634 -0.78553385 
0.00830654 -0.00169231 0.07818319 -0.95871013 -0.27715361 0.06372356 
-0.00472565 0.00168228 0.01378884 0.87104225 -0.48761946 -0.05926698 
-0.03352272 0.01839208 0.01511912 -0.20900178 0.76837814 -0.60490781 
-0.00050614 -0.00165445 0.09131717 -0.28606376 0.05569693 -0.95659047 
-0.01335741 0.02496221 0.01913503 0.96363044 0.26230663 0.05110259 
0.01317724 -0.01013585 0.02454388 -0.94668436 -0.23326662 -0.22220574 
-0.02180370 -0.02607819 0.07256709 -0.96331018 -0.26827407 -0.00791192 
-0.00470972 -0.00322190 0.02025232 0.26688311 -0.95417494 -0.13536443 
-0.01492523 0.02897426 0.02810173 0.96364743 0.26223934 0.05112877 
0.01535068 -0.01945264 0.09258094 0.72957605 0.10825863 0.67527682 
-0.01761522 0.00734997 0.07150894 0.60469943 0.05642876 0.79445231 
0.00649541 0.00470539 0.07876894 -0.95861626 -0.27728710 0.06455004 
-0.00012171 -0.01170530 0.09052358 -0.12679327 0.10444675 -0.98641491 
-0.02996526 0.00425920 0.03765977 -0.96330351 -0.26829690 -0.00794450 
-0.02872077 0.02591534 0.02301635 -0.20900178 0.76837814 -0.60490781 
-0.02847600 -0.00881873 0.01284777 0.26686323 -0.95418382 -0.13534077 
-0.01911873 -0.00109227 0.06464420 0.01332655 0.14410716 -0.98947233 
0.00784981 0.00032046 0.03731058 -0.62810379 0.48907888 0.60521692 
-0.01461629 -0.01768781 0.08077236 0.92421418 0.29319000 -0.24467893 
0.00681161 0.00332761 0.06766514 0.18039803 0.18752915 -0.96555132 
-0.00448012 0.01121639 0.10315080 0.26892319 -0.06112305 0.96122026 
-0.00445944 -0.02884253 0.08709816 0.31600636 0.21930583 -0.92306280 
-0.02279744 -0.01361165 0.03244818 -0.01335203 -0.14405026 0.98948032 
-0.01939304 0.01142473 0.04742458 0.50894362 -0.68095857 0.52656609 
-0.02693255 0.02277238 0.04902947 -0.26676893 0.95421404 0.13531372 
-0.00305018 -0.00464565 0.02227560 -0.96365255 -0.26221004 -0.05118310 
-0.01923938 0.00576558 0.07355933 0.84470171 0.16396810 0.50950325 
0.01256312 -0.01573290 0.03303590 -0.94668436 -0.23326662 -0.22220574 
0.01128760 0.01078562 0.03487024 -0.57249874 -0.08411989 0.81557888 
0.01202567 -0.01930780 0.05091308 0.26687947 -0.95418018 -0.13533519 
-0.00297448 0.01959727 0.10307668 0.44067898 -0.00407127 0.89765567 
-0.00663316 0.01406750 0.09406494 -0.28650242 0.05553249 -0.95646882 
-0.00331194 -0.01268463 0.00071417 -0.02858963 0.13245685 -0.99077636 
0.02107313 0.02051222 0.03010834 -0.26685923 0.95418704 0.13532665 
-0.00065784 -0.01257618 0.01786505 -0.96363902 -0.26226550 -0.05115417 
-0.03296704 0.01542058 0.08731736 -0.91551495 -0.29486662 0.27365336 
0.01470586 -0.01725468 0.04172283 0.26687947 -0.95418018 -0.13533519 
-0.01882606 -0.01212564 0.00593685 0.02862454 -0.13255545 0.99076217 
-0.00806616 -0.02202109 0.08716721 0.46481746 0.25045538 -0.84924483 
0.01090941 -0.01110913 0.07638630 -0.95871013 -0.27715361 0.06372356 
-0.00910509 -0.00458190 0.02805329 -0.26692754 0.95417440 0.13528089 
-0.02149080 0.00348047 0.03930810 0.51794332 -0.67269570 0.52840829 
-0.00463593 -0.02472707 0.09834726 -0.27835634 -0.21075730 0.93706948 
0.01144796 -0.00575038 0.02730750 -0.94668436 -0.23326662 -0.22220574 
0.00202253 -0.00348264 0.00179135 -0.02857397 0.13254569 -0.99076504 
0.00742030 0.00949970 0.09650750 0.72959214 0.10826351 0.67525864 
0.02774958 0.02195506 0.02510070 0.93792766 0.22489093 0.26403728 
-0.00884072 -0.01027844 0.02841507 0.01330548 0.14410244 -0.98947328 
-0.00467099 0.00033916 0.02564855 0.87101585 -0.48766959 -0.05924234 
-0.02070692 -0.02945861 0.07843670 -0.95610410 -0.27975377 0.08719306 
0.00872849 0.02873037 0.07733675 -0.26682815 0.95419091 0.13536055 
-0.02000671 0.00521474 0.04006123 0.51794332 -0.67269570 0.52840829 
-0.01280607 0.00181872 0.03083761 0.40285498 -0.20486973 0.89204055 
-0.02417734 0.02127911 0.06498843 -0.26672852 0.95422536 0.13531405 
-0.01477552 0.02110998 0.06561727 0.96361285 0.26237476 0.05108710 
-0.00498294 -0.01992336 0.09914762 -0.09706599 -0.16632812 0.98128134 
-0.02822624 -0.00302506 0.08079511 -0.95610410 -0.27975377 0.08719306 
-0.03279990 0.01408749 0.08555243 -0.95611811 -0.27975020 0.08705183 
-0.02662564 -0.01019679 0.00171961 -0.02859678 0.13248545 -0.99077231 
-0.02794835 0.02161101 0.05521447 -0.26685539 0.95418608 0.13534062 
0.01496753 0.00703999 0.08319614 0.93792576 0.22484578 0.26408279 
-0.02147410 -0.02692588 0.06121811 -0.96329385 -0.26833117 -0.00795302 
-0.03302552 0.01404354 0.07842010 -0.96331471 -0.26825655 -0.00794393 
-0.02649732 -0.01617095 0.01400279 0.96330261 0.26829988 0.00795686 
-0.02175054 0.02744655 0.02255307 -0.20900178 0.76837814 -0.60490781 
-0.03008116 -0.02090939 0.02244219 -0.96331537 -0.26825455 -0.00793816 
-0.00443604 -0.01434486 0.05260264 0.96365249 0.26221755 0.05114451 
0.01265318 0.02401377 0.07696385 0.93792778 0.22483827 0.26408172 
0.00680324 -0.02619713 0.08918726 0.26681906 -0.95418829 -0.13539600 
0.01869768 -0.01965026 0.06648236 0.26686418 -0.95418233 -0.13534929 
0.00993668 -0.02204049 0.06606230 0.26674545 -0.95420569 -0.13541885 
0.02846843 -0.00080775 0.04192948 0.93791783 0.22484089 0.26411498 
-0.02049096 -0.01451796 0.02764099 0.01330456 0.14410016 -0.98947364 
-0.03081150 0.00628991 0.07176988 -0.96331471 -0.26825655 -0.00794393 
0.00707762 -0.01436569 0.08722475 -0.61582315 -0.06081634 -0.78553385 
-0.00432032 -0.02437569 0.05440880 0.26684561 -0.95419216 -0.13531719 
-0.02968237 0.00346348 0.03023021 -0.96330351 -0.26829690 -0.00794450 
0.00920021 -0.02533175 0.08781225 0.26681906 -0.95418829 -0.13539600 
0.03423847 0.00149017 0.01948098 0.93792689 0.22486463 0.26406273 
-0.02244520 -0.00734506 0.01434950 0.26686323 -0.95418382 -0.13534077 
-0.01102048 -0.02786262 0.06578109 0.26684061 -0.95419055 -0.13533859 
-0.02071043 0.01223661 0.08936406 0.75194347 0.29400480 -0.59003574 
-0.00009445 -0.00740291 0.09085975 -0.28650242 0.05553249 -0.95646882 
-0.03247866 0.01440128 0.08785293 -0.91551495 -0.29486662 0.27365336 
0.01234152 -0.01788721 0.07331036 -0.92053258 -0.29395685 0.25731105 
0.00800342 -0.00414565 0.08383400 -0.92457551 -0.21385883 -0.31531680 
0.00860237 -0.00203992 0.09668694 0.59615135 0.05308914 0.80111492 
0.01567230 -0.00673006 0.08938274 0.83637375 0.15952702 0.52443314 
-0.01334628 0.01460103 0.01170143 -0.02876172 0.13248451 -0.99076772 
0.01220168 -0.01943729 0.05217315 0.26687947 -0.95418018 -0.13533519 
-0.01123671 0.00870292 0.03593669 0.51648623 -0.67997998 0.52045095 
-0.01531186 0.01173505 0.09302349 0.31597397 0.21929678 -0.92307603 
-0.01686946 -0.01215747 0.05841480 -0.17966230 0.77766329 -0.60246265 
0.00554169 0.02263129 0.05858743 0.18041649 0.18735477 -0.96558172 
-0.02030986 -0.00976524 0.00629554 0.02861983 -0.13256863 0.99076056 
0.01853377 -0.00432881 0.05448170 -0.26684132 0.95418870 0.13534996 
0.01784284 -0.00098974 0.07982077 0.93792576 0.22484578 0.26408279 
-0.01390465 0.01148021 0.10358804 -0.09708545 -0.16633496 0.98127830 
0.00438944 -0.02229888 0.09853813 0.26893306 -0.06112082 0.96121758 
-0.00611819 -0.00212343 0.02161910 0.96362984 0.26228893 0.05120534 
0.01315879 0.00584259 0.08933068 0.91234463 0.20488888 0.35446823 
0.00393494 0.00240672 0.07146407 -0.74309486 -0.29316360 0.60155213 
0.00925565 0.02943569 0.06060173 0.18041885 0.18737611 -0.96557713 
-0.01174453 0.01827347 0.02304160 0.96364069 0.26225251 0.05118901 
-0.00291639 -0.02332645 0.08879170 0.17325795 0.18565977 -0.96721876 
-0.01561446 0.00583349 0.06284101 0.19842416 -0.57427877 -0.79424924 
0.01383004 -0.01658027 0.09376034 0.59615135 0.05308914 0.80111492 
-0.03161003 0.01036074 0.03103669 -0.96330351 -0.26829690 -0.00794450 
-0.03302135 0.01437962 0.08405893 -0.95611811 -0.27975020 0.08705183 
0.00115243 -0.01693790 0.01276724 0.26687214 -0.95417565 -0.13538092 
-0.00232822 0.00356727 0.09216608 -0.28606376 0.05569693 -0.95659047 
0.02351012 -0.01758289 0.07382082 0.93791252 0.22487535 0.26410449 
-0.01332409 -0.01929544 0.00083860 0.26681143 -0.95418072 -0.13546480 
-0.01306271 0.02393532 0.01884875 0.96363044 0.26230663 0.05110259 
-0.01989970 -0.01527546 0.09211680 -0.73605919 -0.29243812 0.61048889 
0.00086116 -0.01637901 0.00874725 -0.96363902 -0.26226550 -0.05115417 
0.01146789 0.01496237 0.01453644 -0.48224726 -0.83872175 -0.25294918 
-0.01160926 -0.02828713 0.06761325 0.26684061 -0.95419055 -0.13533859 
-0.00175926 0.02811853 0.06096830 -0.26688406 0.95418394 0.13529848 
0.01840464 -0.01521117 0.03460907 0.26687947 -0.95418018 -0.13533519 
-0.03332475 0.02392038 0.02207299 -0.20900178 0.76837814 -0.60490781 
-0.03221851 0.01309323 0.01254057 -0.96330833 -0.26828060 -0.00791268 
-0.01567581 0.01266781 0.04611768 0.26689810 -0.95417261 -0.13535100 
-0.00705136 0.01918955 0.09448812 -0.28606376 0.05569693 -0.95659047 
-0.01649539 -0.00504749 0.06410366 0.01330221 0.14399382 -0.98948920 
0.01080180 0.00825157 0.03420844 -0.64900452 -0.14241053 0.74733686 
-0.01614587 -0.00766819 0.06372698 0.01330221 0.14399382 -0.98948920 
-0.02018684 -0.00837572 0.00647791 0.02861983 -0.13256863 0.99076056 
0.02655862 0.02294743 0.01921685 0.22161892 0.19736247 -0.95495188 
-0.02861668 0.00663051 0.01107851 -0.02872904 0.13250796 -0.99076545 
-0.02601222 -0.00757696 0.02678294 0.17968184 -0.77769911 0.60241061 
-0.02850674 0.01993394 0.01534457 -0.20900178 0.76837814 -0.60490781 
0.02643164 -0.01665220 0.06059557 0.26686418 -0.95418233 -0.13534929 
-0.00194995 -0.01085015 0.02842448 0.01330724 0.14410107 -0.98947352 
-0.02459525 -0.00066113 0.00998669 -0.02872904 0.13250796 -0.99076545 
-0.03399985 0.01823037 0.05511625 -0.96330345 -0.26829764 -0.00792678 
0.00984427 0.02971814 0.07257320 -0.26682815 0.95419091 0.13536055 
0.01851454 -0.01348300 0.02264128 0.26687947 -0.95418018 -0.13533519 
0.02571461 -0.01589563 0.05384815 0.26686418 -0.95418233 -0.13534929 
-0.03451194 0.02067623 0.03456264 -0.96330345 -0.26829764 -0.00792678 
0.03127690 0.01440772 0.01899912 0.93792766 0.22489093 0.26403728 
-0.00935697 0.01066771 0.10376940 0.08741105 -0.11588791 0.98940855 
-0.00970929 0.00979580 0.02816094 0.96364743 0.26223934 0.05112877 
-0.00581802 -0.00112359 0.02082524 0.87101585 -0.48766959 -0.05924234 
0.02556519 0.00968632 0.04330581 0.93791783 0.22484089 0.26411498 
-0.02460807 -0.01137845 0.08640609 -0.91551495 -0.29486662 0.27365336 
-0.02880295 -0.02562755 0.02676674 -0.96332842 -0.26820889 -0.00790334 
-0.02493766 0.00621965 0.09633923 -0.73605919 -0.29243812 0.61048889 
0.00157105 -0.02267749 0.09889832 0.08738675 -0.11589273 0.98941016 
0.01283446 0.01758862 0.01492432 0.22161892 0.19736247 -0.95495188 
-0.01792052 -0.00013165 0.06480024 0.01332655 0.14410716 -0.98947233 
0.00535994 0.01774909 0.09741103 0.72959214 0.10826351 0.67525864 
0.01022165 0.01139098 0.02875613 -0.48235139 -0.83867818 -0.25289515 
0.00060693 -0.02897541 0.09655571 0.26679033 -0.95420218 -0.13535589 
0.00774969 -0.01887611 0.05684272 -0.94668436 -0.23326662 -0.22220574 
0.00488487 0.01406945 0.06383763 0.31637725 -0.54375857 -0.77732360 
0.00007610 -0.01208157 0.03297863 -0.01328217 -0.14406829 0.98947865 
0.00398786 -0.00940933 0.00514815 0.96365196 0.26222229 0.05113028 
0.02381949 -0.01914083 0.07298952 0.26686418 -0.95418233 -0.13534929 
-0.02231274 -0.02350127 0.07994217 -0.95610410 -0.27975377 0.08719306 
-0.00293162 0.00193499 0.10212737 0.26892319 -0.06112305 0.96122026 
-0.01641967 -0.00188466 0.08779583 0.75194347 0.29400480 -0.59003574 
-0.02126878 -0.00893660 0.02788986 0.26686323 -0.95418382 -0.13534077 
-0.02114271 -0.02782829 0.05152630 -0.96329385 -0.26833117 -0.00795302 
-0.00348808 -0.03005897 0.09612053 0.26692590 -0.95414060 -0.13552207 
-0.01905739 0.02807764 0.02715375 -0.26685855 0.95418364 0.13535161 
0.00539275 -0.01685982 0.06476874 -0.94669276 -0.23322453 -0.22221453 
0.01831630 -0.02054113 0.07201086 0.26686418 -0.95418233 -0.13534929 
-0.01336178 -0.00790693 0.00634348 0.02861983 -0.13256863 0.99076056 
0.02101858 -0.01993494 0.08399947 0.91240919 0.20491549 0.35428676 
0.00460018 -0.01615848 0.02823372 0.96363837 0.26227635 0.05111053 
-0.01740233 0.00814280 0.04125629 0.50894362 -0.68095857 0.52656609 
-0.01063726 0.00602020 0.06500768 0.96365345 0.26221743 0.05112625 
0.01456668 0.02781112 0.06693471 0.93792778 0.22483827 0.26408172 
-0.03131943 0.00789634 0.07912938 -0.96330905 -0.26827773 -0.00792256 
-0.02529553 0.00164296 0.09371593 -0.73595744 -0.29244089 0.61061037 
0.01120110 0.00481661 0.06877448 0.18046360 0.18745723 -0.96555310 
-0.01522370 0.02569889 0.05052650 0.96364743 0.26223934 0.05112877 
0.01418724 -0.00948780 0.01956057 -0.94668424 -0.23326467 -0.22220844 
0.00396685 -0.01417619 0.03000227 0.96363837 0.26227635 0.05111053 
0.00135223 0.01729530 0.07566111 -0.85102177 -0.29920372 0.43155447 
-0.00309703 0.00437576 0.01556397 0.87104225 -0.48761946 -0.05926698 
-0.00228234 -0.00784047 0.02418743 -0.96363902 -0.26226550 -0.05115417 
0.00110406 0.02472146 0.09056520 -0.26686954 0.95418596 0.13531417 
-0.02364542 -0.00441154 0.00945755 -0.02873719 0.13251518 -0.99076426 
-0.01771566 0.01501347 0.10340002 -0.27835608 -0.21075729 0.93706948 
-0.01693112 0.01867541 0.07073906 0.44667459 -0.00197451 0.89469427 
-0.02121465 0.00631004 0.07734512 0.91933745 0.20994209 0.33278069 
-0.01216604 0.01791654 0.09493860 0.02080105 0.14611994 -0.98904824 
-0.01042133 -0.00052168 0.02916328 0.22794412 -0.33545727 0.91406232 
-0.02017198 0.00803570 0.04381447 0.51794332 -0.67269570 0.52840829 
-0.02303294 -0.02104856 0.05173451 -0.96329737 -0.26831815 -0.00797652 
-0.02297778 0.02667709 0.02199969 -0.20900178 0.76837814 -0.60490781 
-0.02398320 -0.02608172 0.02766769 0.26684248 -0.95420074 -0.13526273 
0.00619614 -0.02019470 0.09816644 0.26893306 -0.06112082 0.96121758 
0.01497204 0.01974845 0.01586677 0.22161892 0.19736247 -0.95495188 
0.02151647 -0.01561670 0.04360472 0.26687947 -0.95418018 -0.13533519 
-0.01104020 -0.01175169 0.06786068 0.60494179 0.05650745 0.79426229 
-0.01661594 0.01570572 0.07057537 0.44710729 -0.00184810 0.89447844 
-0.00312772 0.01960618 0.06279122 -0.94670087 -0.23323289 -0.22217093 
-0.00332868 -0.00521663 0.00641385 0.02855530 -0.13251765 0.99076927 
-0.01188799 0.01271493 0.05425478 0.96366858 0.26214752 0.05120073 
-0.00294844 -0.01843654 0.02730622 0.01330724 0.14410107 -0.98947352 
0.00942985 -0.01758350 0.08539862 -0.74423885 -0.11479779 -0.65797418 
0.01159393 -0.01791728 0.07144419 -0.85102177 -0.29920372 0.43155447 
-0.00259507 -0.00267099 0.02741719 -0.26681668 0.95419610 0.13534650 
-0.02817572 -0.00943882 0.02469358 -0.26684237 0.95418817 0.13535182 
0.00881260 -0.00704560 0.07349718 -0.85128033 -0.29923072 0.43102512 
-0.02213887 -0.00601497 0.02764420 0.17970723 -0.77773392 0.60235792 
-0.01933914 0.02571886 0.01952523 -0.20903547 0.76839638 -0.60487288 
0.01777502 -0.01353420 0.08809904 0.83637375 0.15952702 0.52443314 
-0.02049156 -0.00995939 0.09394972 -0.73605919 -0.29243812 0.61048889 
0.02908686 0.01203621 0.02879847 0.93792689 0.22486463 0.26406273 
-0.02255611 -0.00475334 0.00274113 -0.26686957 0.95418352 0.13533057 
-0.02290524 -0.01712568 0.05380159 -0.17963496 0.77765638 -0.60247976 
0.01292793 -0.01066606 0.02616263 -0.94668436 -0.23326662 -0.22220574 
-0.02038229 -0.03084123 0.06832327 0.26684061 -0.95419055 -0.13533859 
0.00951591 -0.01487338 0.09678819 0.44076645 -0.00404952 0.89761275 
0.03363003 0.00341646 0.02000178 0.93792689 0.22486463 0.26406273 
0.02381729 -0.01348189 0.03309048 0.26687947 -0.95418018 -0.13533519 
-0.02740349 -0.00431874 0.01670419 -0.96330833 -0.26828060 -0.00791268 
0.00926301 0.02413558 0.08878415 0.91234463 0.20488888 0.35446823 
0.02461909 0.02222009 0.02505865 -0.26685923 0.95418704 0.13532665 
-0.01473281 -0.02192642 0.09439178 -0.60363644 -0.27497691 0.74833864 
-0.00174331 0.00955311 0.06744568 -0.94670087 -0.23323289 -0.22217093 
0.00324363 0.01669470 0.08225788 -0.95933491 -0.24959061 -0.13183716 
-0.00571752 0.00543339 0.01079417 0.24802455 0.20368573 -0.94709873 
-0.02088454 -0.02940304 0.07339083 -0.96331221 -0.26826712 -0.00789953 
-0.00347823 -0.01933129 0.06012110 0.96365249 0.26221755 0.05114451 
-0.02192564 -0.02504182 0.05234235 -0.96329385 -0.26833117 -0.00795302 
-0.01558023 0.02810870 0.03379040 -0.26685855 0.95418364 0.13535161 
-0.02115200 0.02126198 0.07107520 -0.26698369 0.95414501 0.13537784 
-0.03006658 0.02510933 0.02637374 -0.26685855 0.95418364 0.13535161 
-0.03062110 0.00584013 0.06386901 -0.96331471 -0.26825655 -0.00794393 
-0.01684889 0.00889805 0.06031680 0.19842871 -0.57428294 -0.79424495 
-0.02767912 -0.00511971 0.07725846 -0.96330905 -0.26827773 -0.00792256 
-0.03150140 0.00911619 0.05997943 -0.96330345 -0.26829764 -0.00792678 
0.00555919 -0.00239371 0.08712641 -0.74457830 -0.11498050 -0.65755820 
-0.02010309 -0.03041722 0.06588431 0.26684061 -0.95419055 -0.13533859 
-0.00264977 0.00005507 0.00808939 -0.26677510 0.95420915 0.13533674 
0.00484885 0.01866581 0.09781626 0.72959214 0.10826351 0.67525864 
-0.00378979 -0.01743784 0.05628370 0.96365249 0.26221755 0.05114451 
-0.01124344 0.01617321 0.02436854 0.96364069 0.26225251 0.05118901 
-0.02960627 0.01981964 0.06457385 -0.26691571 0.95416772 0.13535133 
-0.02437997 0.00351255 0.09571487 -0.73605919 -0.29243812 0.61048889 
0.02914472 0.00259340 0.03663245 0.93791783 0.22484089 0.26411498 
0.00210624 0.02503644 0.09032061 -0.26686954 0.95418596 0.13531417 
0.00176639 -0.00286403 0.01344858 0.96365196 0.26222229 0.05113028 
0.00576114 0.02451406 0.09568498 0.83640915 0.15955290 0.52436894 
0.00998225 -0.02066295 0.05643791 0.26687947 -0.95418018 -0.13533519 
-0.02501562 -0.01434929 0.06593377 -0.96331018 -0.26827407 -0.00791192 
-0.01850967 0.01661732 0.07153143 0.60494179 0.05650745 0.79426229 
-0.00436093 -0.00138380 0.01486131 -0.26677510 0.95420915 0.13533674 
-0.02188498 -0.02035318 0.00492445 0.02862454 -0.13255545 0.99076217 
0.00732591 0.01619423 0.03213361 -0.31643140 0.54375505 0.77730405 
-0.02629055 -0.01010279 0.07716051 -0.96330905 -0.26827773 -0.00792256 
-0.00152688 -0.00135745 0.09163982 -0.28650242 0.05553249 -0.95646882 
-0.00307818 -0.02434305 0.05662814 0.26684561 -0.95419216 -0.13531719 
0.00790646 -0.00295824 0.04001890 -0.62810379 0.48907888 0.60521692 
-0.02779253 0.01802767 0.08078123 -0.26691246 0.95418298 0.13525002 
-0.00144712 0.02818057 0.06114643 -0.26688406 0.95418394 0.13529848 
0.01178374 0.00016310 0.04150068 -0.62183380 0.48774722 0.61271971 
-0.01793082 -0.00727875 0.09719443 -0.60363644 -0.27497691 0.74833864 
0.00111251 -0.02352724 0.09883928 0.08738675 -0.11589273 0.98941016 
-0.01559147 -0.02291200 0.04923230 0.01330607 0.14407171 -0.98947781 
-0.01666011 -0.01371164 0.09585567 -0.60363644 -0.27497691 0.74833864 
-0.02684547 -0.00665560 0.02798000 -0.96330351 -0.26829690 -0.00794450 
-0.02717017 0.00276165 0.09140715 -0.84121507 -0.29915604 0.45040286 
-0.01599658 -0.01186635 0.00118957 -0.02859678 0.13248545 -0.99077231 
-0.03297524 -0.00998165 0.01905709 -0.26687902 0.95417958 0.13534048 
-0.01592526 -0.03145976 0.08915608 -0.73605919 -0.29243812 0.61048889 
-0.02484494 -0.01644506 0.02730179 0.01330456 0.14410016 -0.98947364 
-0.03183655 0.01027547 0.06147061 -0.96330345 -0.26829764 -0.00792678 
-0.03243912 -0.01202042 0.00820190 -0.96332842 -0.26820889 -0.00790334 
0.01270934 0.01898514 0.02438319 -0.26684809 0.95418692 0.13534939 
-0.01111417 -0.00555135 0.02404580 0.26686323 -0.95418382 -0.13534077 
-0.03097486 0.01882424 0.06889210 -0.26691571 0.95416772 0.13535133 
-0.02540886 -0.02018408 0.01754781 0.96330261 0.26829988 0.00795686 
0.02421243 -0.01458338 0.06877271 0.93791252 0.22487535 0.26410449 
0.01256070 -0.00626002 0.02310182 -0.94668424 -0.23326467 -0.22220844 
0.01488431 0.02349722 0.06131286 0.31639165 -0.54373592 -0.77733362 
0.01175763 -0.01649202 0.03726454 -0.94668436 -0.23326662 -0.22220574 
0.01329577 0.02014528 0.01736067 -0.26684809 0.95418692 0.13534939 
0.01365574 0.00342847 0.06896375 0.18046360 0.18745723 -0.96555310 
-0.00304533 0.00375212 0.02145514 0.87101585 -0.48766959 -0.05924234 
0.00756045 0.00174216 0.06749714 0.18046360 0.18745723 -0.96555310 
-0.00002112 0.00280493 0.06719349 -0.94667262 -0.23321724 -0.22230807 
-0.02782029 -0.01173311 0.02452769 0.96330261 0.26829994 0.00795690 
-0.00393282 -0.00112554 0.00700700 0.26688311 -0.95417494 -0.13536443 
0.01986797 -0.00713708 0.07786221 0.93792576 0.22484578 0.26408279 
0.02107040 -0.00883289 0.07503552 0.93791735 0.22485653 0.26410356 
-0.02129869 0.00503836 0.01065337 -0.02872904 0.13250796 -0.99076545 
-0.02435036 -0.01542417 0.08290947 -0.91549748 -0.29486471 0.27371383 
0.00651372 0.02613428 0.09127183 -0.26690239 0.95418304 0.13527006 
0.00864772 -0.00106951 0.03432485 -0.94667691 -0.23331961 -0.22218214 
-0.01380348 0.01281133 0.04879796 0.26689810 -0.95417261 -0.13535100 
-0.00761224 0.00295535 0.09282404 0.02080105 0.14611994 -0.98904824 
0.01062163 0.03016885 0.07092840 -0.26682815 0.95419091 0.13536055 
-0.02498842 0.02116683 0.06418146 -0.26672852 0.95422536 0.13531405 
-0.00789729 -0.01509471 0.00522429 0.02854953 -0.13254942 0.99076509 
-0.03017271 0.01427673 0.01214626 -0.02872904 0.13250796 -0.99076545 
0.01150888 0.00335310 0.06854787 0.18046360 0.18745723 -0.96555310 
-0.02537665 -0.00258424 0.09120620 -0.84121507 -0.29915604 0.45040286 
-0.02031021 -0.00848538 0.03322804 -0.01335203 -0.14405026 0.98948032 
0.01711426 -0.01834879 0.09049858 0.72957605 0.10825863 0.67527682 
-0.01599100 -0.01071345 0.02825557 0.01330548 0.14410244 -0.98947328 
0.00417373 -0.02196852 0.09861949 0.26893306 -0.06112082 0.96121758 
0.01670791 0.01649579 0.06896370 0.93792695 0.22484463 0.26407906 
-0.02785148 -0.00857052 0.01921156 -0.26684237 0.95418817 0.13535182 
-0.02511743 -0.02140634 0.02347860 0.96330261 0.26829994 0.00795690 
0.00498573 -0.00529134 0.08816253 -0.61544174 -0.06063875 -0.78584635 
-0.01343446 -0.00507422 0.06414091 0.01330221 0.14399382 -0.98948920 
-0.01696353 -0.03002982 0.06934315 0.26684061 -0.95419055 -0.13533859 
0.01310101 -0.01244949 0.02729745 -0.94668436 -0.23326662 -0.22220574 
0.01146945 0.00569779 0.02924555 -0.22056651 0.07621329 -0.97238982 
-0.03242146 -0.01216240 0.01085700 -0.96331537 -0.26825455 -0.00793816 
-0.02253790 -0.02002598 0.02681131 0.01330456 0.14410016 -0.98947364 
-0.02703168 -0.00968790 0.02870484 -0.26683640 0.95418894 0.13535810 
0.00704095 0.02710879 0.08544117 -0.26682815 0.95419091 0.13536055 
-0.02534149 -0.00708123 0.02722281 0.17979376 -0.77772194 0.60234779 
-0.01520888 0.00826270 0.06118591 0.19842416 -0.57427877 -0.79424924 
-0.00423111 0.02152538 0.06547817 -0.94670087 -0.23323289 -0.22217093 
-0.01431379 0.02172457 0.05376124 0.96364743 0.26223934 0.05112877 
0.00640929 0.00364544 0.07668716 -0.92065573 -0.29395244 0.25687543 
-0.00556395 -0.01998642 0.09907946 -0.09706599 -0.16632812 0.98128134 
-0.00118787 -0.00611511 0.00153176 -0.02857397 0.13254569 -0.99076504 
-0.03342582 0.01539093 0.08146247 -0.96331471 -0.26825655 -0.00794393 
-0.02975059 -0.02206367 0.02132885 -0.96332842 -0.26820889 -0.00790334 
0.00834881 -0.00536834 0.07374559 -0.85128033 -0.29923072 0.43102512 
-0.02886874 -0.00057712 0.06808072 -0.96330905 -0.26827773 -0.00792256 
-0.00738020 -0.01404850 0.08961309 0.31600636 0.21930583 -0.92306280 
0.02702625 -0.01115206 0.02299201 0.26687947 -0.95418018 -0.13533519 
0.00408183 -0.01393493 0.02659639 0.96363837 0.26227635 0.05111053 
0.01282970 -0.01445611 0.03055984 -0.94668436 -0.23326662 -0.22220574 
0.03348653 -0.00384423 0.01997037 0.34539190 -0.53512585 -0.77093750 
0.01219536 -0.02050103 0.08223712 -0.85061610 -0.16719943 -0.49849442 
-0.02537412 -0.02619973 0.02575719 0.26676729 -0.95421064 -0.13534170 
-0.02668628 0.02603870 0.02247011 -0.20900178 0.76837814 -0.60490781 
-0.00292587 -0.02681466 0.08810496 0.31600636 0.21930583 -0.92306280 
0.01906578 0.02089702 0.02343688 -0.26684809 0.95418692 0.13534939 
0.00471879 -0.01672675 0.01830587 0.26663199 -0.95424700 -0.13535164 
0.01640898 -0.02160307 0.07573668 0.26686418 -0.95418233 -0.13534929 
-0.00858178 -0.02650477 0.06101820 0.26700804 -0.95412230 -0.13548911 
0.01997396 -0.01630101 0.08458791 0.91240919 0.20491549 0.35428676 
-0.00469707 -0.01559293 0.06391974 0.96365249 0.26221755 0.05114451 
0.00980822 -0.01311806 0.07125017 -0.85102177 -0.29920372 0.43155447 
-0.02947839 0.00727061 0.05695631 0.26682213 -0.95419693 -0.13533068 
-0.02941885 -0.01143050 0.00163526 -0.02859678 0.13248545 -0.99077231 
-0.02382087 0.00946404 0.09859495 -0.60381269 -0.27498537 0.74819332 
-0.02750022 -0.00397000 0.01665657 -0.96330833 -0.26828060 -0.00791268 
0.02547317 -0.00900830 0.05954849 0.93791252 0.22487535 0.26410449 
-0.02272340 -0.02272589 0.07792680 -0.95610410 -0.27975377 0.08719306 
-0.01713878 0.01119569 0.10271272 -0.27835608 -0.21075729 0.93706948 
0.02180752 -0.01319174 0.02708149 0.26687947 -0.95418018 -0.13533519 
-0.01148418 0.01901017 0.01436337 0.96363044 0.26230663 0.05110259 
0.01680482 -0.01500155 0.09009269 0.83637375 0.15952702 0.52443314 
-0.00915325 -0.00295019 0.00957628 0.26688311 -0.95417494 -0.13536443 
0.00752036 -0.01439262 0.06811671 -0.60915214 -0.27584344 0.74353498 
-0.02287050 -0.02102595 0.08176944 -0.95611811 -0.27975020 0.08705183 
-0.00889302 -0.00747690 0.09065648 0.31597397 0.21929678 -0.92307603 
0.02346645 -0.00227648 0.05162285 -0.31642735 0.54371488 0.77733380 
0.00763387 0.00429259 0.03301379 -0.94667691 -0.23331961 -0.22218214 
-0.00698409 -0.00077168 0.00537296 -0.26681951 0.95420331 0.13529007 
0.01685281 -0.01856067 0.05516564 0.26674545 -0.95420569 -0.13541885 
-0.01210887 -0.01690469 0.09761286 -0.44950613 -0.24747068 0.85831374 
-0.00446514 0.00531705 0.09288429 -0.12679327 0.10444675 -0.98641491 
-0.03107481 0.01665467 0.08398956 -0.26712453 0.95403528 0.13587220 
-0.00345613 -0.00839251 0.03346834 -0.01328217 -0.14406829 0.98947865 
-0.02812220 -0.00048243 0.06428296 0.19842871 -0.57428294 -0.79424495 
0.02417487 -0.01608894 0.05217505 0.26686418 -0.95418233 -0.13534929 
0.01426783 -0.01924008 0.05485741 0.26700890 -0.95415783 -0.13523659 
0.02205985 0.01248955 0.01601118 0.22156814 0.19741382 -0.95495307 
0.02046332 -0.00210712 0.07146518 0.93791735 0.22485653 0.26410356 
-0.00334042 0.01751300 0.10323233 0.26893306 -0.06112082 0.96121758 
0.01139106 -0.01938429 0.05020094 0.26687947 -0.95418018 -0.13533519 
-0.01780270 0.01160099 0.04611542 0.50894362 -0.68095857 0.52656609 
-0.00154846 0.01575167 0.07186956 -0.60936284 -0.27586284 0.74335498 
0.00482227 0.02580806 0.09023602 -0.26686954 0.95418596 0.13531417 
-0.01612300 0.00059367 0.03227485 0.43337065 -0.36257690 0.82506233 
0.00655329 0.00484507 0.08023902 -0.95871013 -0.27715361 0.06372356 
0.02382137 -0.00354463 0.05937787 -0.26684132 0.95418870 0.13534996 
-0.02993135 -0.02149591 0.02408369 -0.96331537 -0.26825455 -0.00793816 
-0.00280548 0.00393611 0.02346705 0.87101585 -0.48766959 -0.05924234 
0.00687791 -0.01756124 0.08762871 -0.61582315 -0.06081634 -0.78553385 
-0.00577103 -0.01424452 0.05241163 -0.17964168 0.77765489 -0.60247970 
-0.02109709 0.02405499 0.05149068 -0.26685855 0.95418364 0.13535161 
0.00800830 -0.02123786 0.05822023 -0.94668436 -0.23326662 -0.22220574 
-0.02631020 -0.00578647 0.06386417 0.01330221 0.14399382 -0.98948920 
-0.02836743 0.02237132 0.04902682 -0.26672852 0.95422536 0.13531405 
-0.00331318 -0.00289357 0.01825143 -0.96365255 -0.26221004 -0.05118310 
0.02159113 -0.00372446 0.06257461 -0.06173750 0.80824888 -0.58559567 
0.01627092 -0.00586082 0.08808536 0.91234463 0.20488888 0.35446823 
-0.01037817 0.01071108 0.03607665 0.96362770 0.26232004 0.05108746 
-0.02970163 -0.02219091 0.01967884 -0.96332842 -0.26820889 -0.00790334 
-0.00511363 -0.00100588 0.01071303 -0.26677510 0.95420915 0.13533674 
0.02600166 0.01566372 0.03666726 0.93791783 0.22484089 0.26411498 
0.00800480 -0.01570435 0.05242621 -0.94668436 -0.23326662 -0.22220574 
-0.01262465 -0.02844027 0.06669090 0.26684061 -0.95419055 -0.13533859 
-0.00788347 -0.01062874 0.00112103 -0.02857397 0.13254569 -0.99076504 
0.03177278 -0.01175750 0.03661996 0.26686418 -0.95418233 -0.13534929 
-0.01613392 -0.01249049 0.02799484 0.01330548 0.14410244 -0.98947328 
0.01693481 -0.00735679 0.08724129 0.91234463 0.20488888 0.35446823 
-0.02428596 0.00143520 0.01025809 -0.02872904 0.13250796 -0.99076545 
0.01588282 0.01331164 0.03763330 -0.31645167 0.54375541 0.77729553 
0.02407361 -0.01424828 0.06898038 0.93791252 0.22487535 0.26410449 
-0.02016347 0.02234316 0.06540142 -0.26676893 0.95421404 0.13531372 
-0.00490929 0.01942048 0.09365571 -0.46097949 -0.00306015 -0.88740557 
-0.02391296 0.01515499 0.10061224 -0.60381269 -0.27498537 0.74819332 
-0.00517346 0.02215250 0.09629992 -0.26686954 0.95418596 0.13531417 
0.02102402 -0.01492373 0.03774787 0.26687947 -0.95418018 -0.13533519 
0.01239975 -0.01636640 0.09481052 0.59615135 0.05308914 0.80111492 
-0.02549485 -0.00551884 0.00936309 -0.02872904 0.13250796 -0.99076545 
-0.02449531 0.01600874 0.08211448 0.96030420 0.27511853 -0.04610511 
-0.00449827 0.02140526 0.10290287 -0.26695326 0.95418757 0.13513660 
0.00143045 0.02231395 0.08020582 -0.92065573 -0.29395244 0.25687543 
-0.01080737 0.02025988 0.09853642 -0.26717925 0.95410693 0.13526036 
-0.02169687 0.00841734 0.08530875 0.92423791 0.29318875 -0.24459058 
0.02829183 -0.00757969 0.04832220 0.93791252 0.22487535 0.26410449 
-0.02064867 0.02325000 0.05804970 -0.26685855 0.95418364 0.13535161 
0.01633893 -0.02159702 0.07555591 0.26686418 -0.95418233 -0.13534929 
-0.00835095 -0.00252755 0.06576264 0.96364945 0.26227534 0.05090520 
0.00677869 -0.00103347 0.08495051 -0.85056174 -0.16716315 -0.49859932 
0.01350838 -0.02408103 0.08748782 0.26681906 -0.95418829 -0.13539600 
-0.03245831 0.01357683 0.02528225 -0.96330351 -0.26829690 -0.00794450 
-0.01187516 -0.01386679 0.09861079 -0.44932219 -0.24741548 0.85842592 
0.00137358 -0.00764369 0.00125340 -0.02857397 0.13254569 -0.99076504 
0.01378275 -0.00429111 0.09165433 0.83637375 0.15952702 0.52443314 
0.00192203 0.01648601 0.08736183 -0.85056174 -0.16716315 -0.49859932 
0.01640011 0.01565613 0.07077183 0.93792695 0.22484463 0.26407906 
0.00726818 0.00996009 0.06768233 0.31638590 -0.54376572 -0.77731514 
-0.02988459 -0.02132859 0.01271649 -0.96332842 -0.26820889 -0.00790334 
-0.01298327 -0.00635561 0.03290983 -0.26686713 0.95417511 0.13539492 
-0.00735301 -0.01339965 0.08977655 0.31600636 0.21930583 -0.92306280 
-0.00157676 -0.00876650 0.01564587 -0.96365255 -0.26221004 -0.05118310 
-0.00003105 0.02476024 0.08805946 -0.26676425 0.95424533 0.13510232 
0.02618982 -0.01301897 0.03450526 0.26687947 -0.95418018 -0.13533519 
0.00295307 0.01691689 0.09963443 0.59605181 0.05306185 0.80119073 
-0.01118381 -0.02330133 0.09625303 -0.44950613 -0.24747068 0.85831374 
-0.02370298 0.02323953 0.05210209 -0.26674676 0.95422143 0.13530591 
0.02474626 -0.01841522 0.06970146 0.26686418 -0.95418233 -0.13534929 
-0.00999567 0.00106817 0.09220593 0.17354019 0.18571518 -0.96715754 
0.01559039 -0.00313136 0.08825925 0.91234463 0.20488888 0.35446823 
0.00997886 -0.01800377 0.08485096 -0.74423885 -0.11479779 -0.65797418 
0.01901062 -0.00824146 0.08184750 0.93792576 0.22484578 0.26408279 
0.00116417 -0.01193034 0.09021988 -0.28650242 0.05553249 -0.95646882 
-0.00926307 -0.01455178 0.09926131 -0.27835634 -0.21075730 0.93706948 
-0.00967820 0.01968413 0.10482310 -0.26695803 0.95418864 0.13511962 
0.03038724 -0.00797374 0.02144824 0.34539190 -0.53512585 -0.77093750 
0.01377772 -0.00833182 0.09249751 0.72957605 0.10825863 0.67527682 
-0.03196867 -0.01370859 0.00814874 -0.96332842 -0.26820889 -0.00790334 
-0.02455688 -0.02293305 0.00709525 0.96330261 0.26829988 0.00795686 
0.00046999 0.01733827 0.07446065 -0.74309486 -0.29316360 0.60155213 
-0.01391475 -0.02222305 0.09494266 -0.60363644 -0.27497691 0.74833864 
-0.01307411 0.01769037 0.05108795 0.96364743 0.26223934 0.05112877 
0.00033087 0.01716354 0.05981972 0.31637725 -0.54375857 -0.77732360 
0.01932869 -0.01529001 0.08566493 0.91240919 0.20491549 0.35428676 
0.01486274 -0.01081722 0.09172370 0.72957605 0.10825863 0.67527682 
0.00044013 0.00337172 0.06648330 0.18039803 0.18752915 -0.96555132 
0.01304935 0.02313344 0.07630631 0.93792778 0.22483827 0.26408172 
-0.02243710 0.00850315 0.09935853 -0.60381269 -0.27498537 0.74819332 
-0.02733766 -0.02338215 0.00202347 0.26670563 -0.95422614 -0.13535349 
-0.00271989 0.02614471 0.07299679 -0.26679718 0.95419317 0.13540566 
-0.02823040 -0.00312121 0.07661380 -0.96330905 -0.26827773 -0.00792256 
0.00682714 -0.01251425 0.05409432 -0.94660842 -0.23343250 -0.22235537 
0.00066926 -0.01817961 0.02159384 -0.96363902 -0.26226550 -0.05115417 
-0.01230202 -0.01315983 0.05575906 -0.17964168 0.77765489 -0.60247970 
-0.02177607 -0.02625350 0.07514484 -0.96330905 -0.26827773 -0.00792256 
0.01356553 0.03028003 0.06838842 0.93792778 0.22483827 0.26408172 
-0.00148366 0.02301230 0.09751430 -0.26690239 0.95418304 0.13527006 
0.03038827 0.01164400 0.02450973 0.93792766 0.22489093 0.26403728 
0.00545375 -0.00805239 0.08800905 -0.61544174 -0.06063875 -0.78584635 
0.00299437 0.00906721 0.10009856 0.44076645 -0.00404952 0.89761275 
-0.02525628 -0.01341126 0.06342619 -0.96331221 -0.26826712 -0.00789953 
0.02158353 -0.01742561 0.08052904 0.93792576 0.22484578 0.26408279 
-0.01667715 -0.01733889 0.03198806 -0.01335957 -0.14408861 0.98947465 
-0.02797495 -0.02104635 0.03129563 -0.01335957 -0.14408861 0.98947465 
-0.03004100 0.01423046 0.09366287 -0.84121507 -0.29915604 0.45040286 
-0.00712605 -0.00502226 0.02817931 0.26686323 -0.95418382 -0.13534077 
-0.01267273 -0.01560947 0.00059324 -0.02857710 0.13246201 -0.99077606 
0.00042757 0.02718847 0.07184305 -0.26679718 0.95419317 0.13540566 
-0.00583331 -0.01924670 0.06518574 0.27963787 -0.05772294 0.95836884 
0.00284477 -0.00359340 0.08970708 -0.46097949 -0.00306015 -0.88740557 
-0.01525827 0.01115977 0.05757376 0.26684603 -0.95419598 -0.13528992 
0.01463086 -0.00306721 0.01107199 0.22146705 0.19740291 -0.95497882 
-0.03238870 0.01306648 0.03407710 -0.96330351 -0.26829690 -0.00794450 
0.01284254 0.03167605 0.06468168 -0.26682815 0.95419091 0.13536055 
0.02829535 -0.00296049 0.04437675 0.93791783 0.22484089 0.26411498 
0.02084255 -0.00362255 0.07140862 0.93791735 0.22485653 0.26410356 
-0.00897766 -0.00796917 0.03345576 -0.01331247 -0.14403290 0.98948336 
-0.01753670 0.00278757 0.07210443 0.74327528 0.11437569 0.65913576 
-0.02589698 -0.00963888 0.03059614 -0.26683640 0.95418894 0.13535810 
0.01255605 0.01996137 0.08075913 0.93792695 0.22484463 0.26407906 
-0.00025157 -0.02076446 0.09928337 0.08738675 -0.11589273 0.98941016 
-0.00823087 -0.00483705 0.06675349 0.27921650 -0.05788029 0.95848221 
-0.02501976 -0.02576504 0.02339090 0.26676729 -0.95421064 -0.13534170 
-0.02797009 0.01789054 0.08139830 -0.26691246 0.95418298 0.13525002 
-0.02427062 -0.01330788 0.00123563 -0.02859678 0.13248545 -0.99077231 
-0.01629218 -0.02732642 0.09069366 -0.73605919 -0.29243812 0.61048889 
0.01470685 0.01635816 0.07618804 0.93792695 0.22484463 0.26407906 
-0.01985977 -0.01500601 0.09229401 -0.73605919 -0.29243812 0.61048889 
-0.03122332 0.00804187 0.06254695 -0.96331471 -0.26825655 -0.00794393 
-0.01860340 -0.02957004 0.08593268 -0.84121472 -0.29915595 0.45040378 
-0.02081621 0.01838998 0.09198743 -0.26580119 0.95472050 0.13363591 
-0.01451263 0.02486083 0.01676726 -0.20903547 0.76839638 -0.60487288 
-0.02267027 -0.00700493 0.01150783 0.26688311 -0.95417494 -0.13536443 
0.01648881 -0.00296355 0.04876465 -0.62183380 0.48774722 0.61271971 
-0.01393825 -0.01776828 0.08254307 0.85211933 0.29922980 -0.42936483 
-0.01118652 -0.01624424 0.06829158 0.60469943 0.05642876 0.79445231 
-0.03162560 0.01080158 0.01804572 -0.96330279 -0.26829922 -0.00795077 
0.01753525 -0.02141403 0.07662466 0.26686418 -0.95418233 -0.13534929 
-0.03020044 0.02324364 0.03926359 -0.26676893 0.95421404 0.13531372 
-0.00681690 -0.01784390 0.00343939 0.26691082 -0.95418739 -0.13522212 
0.00104910 0.02435815 0.09301873 -0.26686954 0.95418596 0.13531417 
-0.02194189 -0.01125565 0.09158045 -0.73595744 -0.29244089 0.61061037 
-0.03059743 0.00649538 0.03879411 -0.96330351 -0.26829690 -0.00794450 
-0.01124110 -0.01674790 0.03214730 -0.01327990 -0.14405468 0.98948056 
-0.01933278 0.02308331 0.06181933 -0.26674676 0.95422143 0.13530591 
0.01014994 -0.00972931 0.07478972 -0.92053258 -0.29395685 0.25731105 
